# .PCD v0.7 - Point Cloud Data file format
VERSION 0.7
FIELDS x y z
SIZE 4 4 4
TYPE F F F
COUNT 1 1 1
WIDTH 1330
HEIGHT 1
VIEWPOINT 0 0 0 1 0 0 0
POINTS 1330
DATA ascii
5.486392241 9.51328021 -0.4746630448
5.997892854 9.486298143 -0.4756036811
6.504597941 9.444816166 -0.4731347582
6.981920445 9.484325263 -0.437265227
7.486490256 9.473720273 -0.3872216876
8.004523317 9.494880432 -0.3032479222
8.495626571 9.468047495 -0.2542820068
9.004915504 9.493348885 -0.2016727538
9.513241975 9.500508965 -0.1710884312
4.332296832 3.691469771 3.44324635
5.171935618 3.970899101 2.924876044
5.21185348 4.522595823 2.764590902
4.502544087 4.458381458 0.6689895332
4.400020887 4.582604556 3.3543855
2.637938071 3.654467366 2.483613371
4.551503759 2.654692213 2.437277048
4.00166267 3.958862104 0.4666440792
2.996608195 3.266828166 2.785095936
3.706436202 3.210587176 3.252121327
3.163900151 4.272180561 0.7858778425
3.671340362 3.424403117 3.373293828
3.920624308 5.339287346 1.26486939
4.040760308 4.439112563 0.6104000788
3.193366947 4.307008783 0.785547392
4.030369483 3.616193843 3.464879358
3.801137229 3.182072405 3.25927995
4.483743453 4.034627772 3.436306583
4.815920021 5.158777775 2.557157448
3.695875167 4.925977501 0.8459729327
3.057162621 4.463263071 0.9285296699
4.066167076 4.537149097 3.38904776
2.549185497 4.375290921 1.761051152
4.84649915 3.264627798 2.977034978
5.348486644 4.607329382 1.782288805
4.736941553 3.06807322 2.941810877
3.288788776 3.535010814 0.7715317318
3.963877627 4.144486687 0.4717706992
4.554700455 5.220442659 2.620489603
5.060310073 3.467846495 1.1215176
2.533191368 3.986273058 1.92980616
3.456094566 3.804927526 3.388421589
2.845537481 3.899233214 2.898632237
4.44841709 3.833259968 0.6290828825
2.744378823 4.629241475 1.488000482
3.563044566 3.800895887 0.592940343
3.393466837 2.667090311 1.687684011
2.759358912 4.704254013 2.424597936
4.832938513 5.140477598 1.459261868
3.259196574 3.626604934 0.7628499915
3.902528937 3.815227857 0.5106633295
5.108308685 4.313354767 2.950928741
3.833230982 3.89327053 3.487305553
2.569713611 4.360094673 1.589081403
3.686241066 2.744363055 2.741796001
4.896583469 4.948560173 1.376572825
3.331004662 4.846759183 3.01148172
4.080206816 3.04207409 3.16190976
3.018474214 5.119354355 1.96172089
4.49343829 3.26450773 0.7815187739
4.007843405 4.081812254 3.494399475
4.803899457 4.355993745 3.209537212
2.818133032 4.260917566 1.052345389
3.621329935 3.559212485 0.6331951364
4.165288276 5.479377814 1.808641612
3.46571434 3.578614615 0.6578693081
3.751561866 3.189262608 0.7313427537
4.410845125 5.012660813 0.9521730069
3.810463131 5.444248817 1.749544942
3.675426264 5.454872259 2.034458071
4.178127522 2.668628153 1.266577909
4.837628405 4.281127079 0.7848283379
4.080594111 4.162549241 0.4999475909
3.865573348 4.95140109 0.8508099797
3.955222083 4.060446543 3.486157846
4.873853675 4.944438441 1.229701681
2.759277064 3.852749687 2.833795514
3.578402398 3.112666322 3.09281127
4.307286265 4.004714701 0.5226140182
3.662294511 3.176993647 0.7905534465
4.010532858 4.146147778 0.5116674415
2.743713458 3.55839857 2.706491863
3.210836097 3.487980854 3.197769984
3.976841206 5.442746245 1.599892425
3.042451904 4.807235523 1.230710121
4.492297206 5.059752357 1.039475772
4.866702268 3.461858711 0.9214206745
4.557726566 2.721972828 2.632434368
5.173662374 4.715301074 1.445766498
5.413027873 4.245091972 1.674932468
3.899244693 4.168637199 3.480408616
5.109643469 3.517741357 1.176372645
3.413779051 5.113377297 2.817670461
3.096469385 2.867428942 1.601901788
3.286657269 2.917692379 1.201112672
4.428796092 4.077419401 0.5630246081
4.424489462 4.154832565 3.421870302
3.591776378 4.639671919 0.7169946707
5.275492043 3.787167763 1.262267702
3.438608319 5.404681067 2.140413729
3.741416461 4.296007871 3.400435687
4.337678991 2.691791141 2.635642792
2.755906909 4.193100362 1.203378788
2.52992885 3.707993814 1.807454783
4.390876141 4.440930036 0.6360265209
4.138095199 3.758680321 3.430183572
2.885155894 3.820684368 1.014589774
4.143969037 2.532284717 2.02360391
3.168643848 5.12141444 1.499506797
5.257085862 4.585662608 1.421614635
3.0763185 4.020724198 3.182185117
3.432380742 3.716005166 3.392248253
4.012009553 3.673393092 3.46454472
5.04544871 3.084181498 2.52913173
4.001954341 4.075157857 0.5279487096
4.420746742 4.678057477 3.236510798
3.336706559 4.779021194 0.8802789261
4.215760572 3.954866967 0.5467704275
4.220711753 4.655540545 3.337981398
4.022486064 3.033195467 0.8717425549
4.241861307 4.770329729 3.25273172
3.849501662 3.740383545 3.439342065
2.566816729 4.043335588 2.456485584
3.532699638 4.061190055 0.5961356666
3.486717889 3.784036122 0.5940780379
5.024483599 4.15143637 3.033524379
3.972053668 2.637809297 1.393062797
3.991737655 2.771389666 2.853239974
4.023363678 4.022768135 0.5201378045
3.479452296 2.575968963 1.727906046
4.149881363 3.614396041 3.423646212
2.527152237 4.006339353 1.773902504
3.503492211 2.88371755 2.888199143
4.132263698 4.194057919 0.5486948243
4.098551295 3.833156568 3.451807193
3.770244621 5.35556241 2.613908355
3.656418627 5.0814029 2.977636043
4.225417185 3.937273888 0.5157248207
4.461795507 3.486793498 0.684718091
3.995045504 3.779162194 3.510619776
3.845073497 4.107246492 0.5088490728
2.940945912 4.792171986 1.294833929
4.090702446 3.850136894 0.5093676987
4.812780251 5.003590159 2.711320465
4.449414348 4.915251972 0.8807151056
3.86458263 3.773809859 3.479621865
5.143031342 4.24550263 1.001170918
2.896644473 3.977280168 1.045378359
4.574310345 3.167910289 3.09957688
4.748096848 3.057603584 1.082273425
2.908950637 3.838184508 3.066652404
2.869319416 4.581899895 2.728464594
5.055141227 3.224582482 2.734538129
2.871712576 4.319091072 1.051434919
4.789128273 3.505373964 0.8118379216
2.841574173 4.455496213 1.21482006
3.903791574 3.273673005 0.6964411805
4.813547559 2.978180118 1.267529826
4.259040323 2.849807609 2.944812746
4.081494222 4.587212989 0.6587558608
3.754953654 3.632158714 0.581388757
2.627970859 3.314628727 1.950721179
2.720473901 3.643115369 1.277194458
2.964368463 4.333049843 0.9606530362
4.164064884 4.78746704 0.7275375156
4.752460578 5.240188952 1.794716203
2.958565584 3.841977394 3.072119326
4.26297829 2.553084794 1.75442051
5.201148089 3.575456432 2.779644114
2.849328159 3.409388972 2.759817226
3.755482388 3.945985044 3.513626972
3.324904422 4.223112177 3.308291496
3.217403028 3.420991342 3.129631751
4.711616897 5.32360167 2.072823789
4.477046172 3.808077482 3.401946831
4.062818157 3.40615838 3.399168277
4.456659795 5.396640006 1.843941942
2.835790612 3.70304416 1.114812944
5.233798089 4.363421074 2.723911202
4.041588237 4.011184343 3.506016679
5.065325379 3.242825356 1.212498203
4.416827859 4.272159673 0.561912273
4.180545006 2.953186179 3.052976699
3.605475409 3.556732596 0.619387099
4.042103756 3.912502817 0.4918906639
4.357327031 3.199461838 0.8156154398
4.369801136 2.922105268 0.9809914458
2.684345243 4.616761877 1.574480991
5.239632738 4.573199204 1.333215694
4.113992186 4.72911591 0.6843039609
3.07388553 4.019558635 3.177117647
3.932102364 3.090242285 0.7982452421
2.929619886 2.939095799 1.934735657
3.311597029 2.779700898 2.558729974
5.155697792 3.097172122 2.15976454
3.363277346 3.36916075 3.18537766
4.404901143 2.541740256 2.066733538
2.725890268 3.254744916 2.252496001
2.725223115 4.212557181 1.271263771
2.641028876 3.530848854 2.517866737
4.627954944 4.152755824 0.6329498115
3.337076178 5.327485383 2.28993788
3.025992483 5.136290532 2.099901898
4.53594393 4.34482332 3.35979819
4.062479621 4.517977063 3.394949352
4.295392842 3.354441223 0.6797185382
5.351011185 4.027406222 1.300755921
3.550401489 4.854942049 3.129869418
3.669451099 4.105013055 0.531598225
4.270070906 2.721469091 2.72215259
3.914168974 4.090935807 0.5079139589
3.551333359 5.095895509 1.056852042
4.468295454 4.139605585 0.5989428014
4.759178375 3.532753768 0.805124817
3.255937209 5.301538616 1.864791303
5.435479638 3.6516977 2.297583241
4.360203843 5.433869342 1.942899528
4.610975038 3.652665796 3.279463978
3.243877583 5.189860185 2.53957575
3.636459964 5.421582833 1.66736917
4.049739263 3.098955655 0.8218757213
4.755622798 3.801893125 0.7277715733
2.836902087 4.072041059 1.001838745
3.15846704 5.244002967 1.988924303
3.947743917 4.283661404 3.479099781
5.21506048 3.524621038 1.262566636
5.351663479 4.633865211 1.829808217
5.318597399 3.949090004 1.244238944
4.941300938 4.860402761 2.807470267
4.172108117 3.997563482 0.5212042811
4.385979903 5.398124584 2.323048558
5.039258822 4.185278667 3.05214089
3.923996492 3.725107659 0.5239202212
3.884445284 4.055269815 0.5316761812
3.102103652 5.124869786 2.402728282
4.307368361 2.657000872 1.387607524
4.529383424 3.150129124 3.105955504
2.632183876 4.344314146 2.514368025
4.001023593 2.814031957 1.020202489
3.354517419 5.325001076 1.801917395
5.427859528 3.616380031 2.334182655
3.863143493 4.038169776 0.5013380591
4.602863918 5.007284822 1.110954514
5.191986512 4.919778946 2.238892304
4.011333688 3.330915021 0.6693990148
3.103965189 2.775120898 2.058322621
2.848797035 4.935938266 1.76375816
3.943364425 4.468409222 3.426449091
2.520044848 3.92531011 1.740194988
4.992358576 4.634003397 1.076290709
4.704958162 3.009186332 2.887657255
5.233969227 4.751697902 2.490318348
3.896563135 3.590179146 0.5497612518
3.705403701 4.329575243 0.557413404
2.625512094 3.798443248 2.474283957
3.828683666 4.055524484 0.5293559367
3.315523046 2.681295785 2.318692004
4.412238956 5.180972836 1.239857381
5.102059291 4.046161902 3.015829596
4.390025593 4.2405682 0.5793466882
3.374748221 2.925145628 1.177860418
4.423684642 3.862775151 0.5543909335
3.3222131 2.956621254 2.822284119
4.510218946 3.421598173 0.755155989
2.821462916 4.523807712 2.763576358
4.441597087 4.44183392 3.35649197
4.199666957 3.540915011 0.619058631
5.06619725 3.925783191 0.9802701416
5.268457601 3.440864154 2.577008424
3.44934461 3.289387644 3.179526767
4.230167938 4.978232833 0.8918457584
5.076792093 4.011043839 3.035097425
3.382919996 5.044253049 1.157366278
3.51600171 3.53512434 0.6761761815
4.570076955 4.42116806 3.330188243
4.603188238 3.567297305 3.292713561
4.03484025 4.038408045 3.503879041
2.904500761 4.611571145 1.171897348
2.902430812 3.841692706 1.029260106
3.14048541 4.454827897 3.169051299
4.364615841 4.01351308 3.467521057
3.900080018 4.341689276 0.5578348982
3.882461973 3.807844604 0.4943973031
3.69731614 2.805801698 2.854374181
4.126813774 4.010591558 0.5253043929
4.334221105 4.122534033 0.5788842027
3.294539797 4.569354838 0.7712871814
3.63362409 4.530494495 0.6793700357
4.930818841 4.278441623 3.086916774
4.017705623 2.555849822 2.409434758
4.18658866 3.462788533 0.6169148789
3.788562587 4.548310503 3.347202829
2.513698536 3.869390629 1.749563227
3.521164197 5.400131039 1.761589292
5.022982053 4.231709154 0.9541200293
2.85650165 3.611694304 2.916662056
5.323499637 3.886606504 2.664848965
3.70121293 4.228423558 0.5833146878
3.802318398 3.548180273 0.6138722318
3.507778264 5.178160305 2.760784823
2.571563436 4.176627347 2.484056571
4.328185869 5.250394485 1.269902857
4.128172283 4.069892548 0.5014193816
2.990931482 4.91704072 1.31519577
3.767254671 3.897005844 3.470252
5.205114636 4.517364762 2.699797141
4.130085887 4.118047676 0.5199094916
5.352589505 4.586119246 2.263242675
4.998365989 3.907065336 3.108318132
3.138674502 4.717201257 1.025496958
5.105586261 3.249435327 2.594125682
5.103592137 4.087742292 2.986597833
3.647587077 2.565143346 1.826675185
2.895191068 3.883824344 0.9468725442
3.173005244 3.002527758 1.28349105
3.095945108 5.077069437 2.505131748
4.655797166 3.210652526 0.9261351037
4.161321413 4.877978096 0.7513171621
3.628398908 4.044150255 3.445656986
3.332784042 4.718861592 0.8684589798
4.135860342 3.803893191 0.5331822237
2.880832999 4.276851774 1.033041876
5.31253213 3.322321039 2.329499376
3.367150839 5.08838461 2.818669636
4.11333006 5.4678092 2.071084621
4.459780777 5.227688443 1.347519532
4.358132138 4.223097165 3.421600422
2.914631915 4.296602878 2.944698459
3.529114435 4.701768825 3.239115954
4.465693423 3.999482163 0.5642120318
4.037137164 5.48678963 2.10763579
4.135801106 3.903505478 3.54218007
3.949324374 2.514322886 2.125357535
4.088832805 4.311956604 0.5792994212
4.815587941 2.763903382 2.338899047
4.811036553 2.713508019 1.85063833
4.010407372 3.964697461 0.4920458972
4.690761898 4.605340285 0.8324801383
3.979131184 4.098888615 3.507061637
4.377227865 2.728384666 2.607810218
3.054848067 4.044396294 0.8397041369
3.304185791 3.109779733 2.972060215
3.237541556 3.539471793 0.7955174147
4.758212195 4.150314144 0.6819020506
3.430187234 4.224705382 0.6152839689
3.676180921 4.401033852 3.41331468
4.391049321 4.169241771 3.418242242
5.312392731 3.789343991 1.300332215
4.051099821 2.62443626 2.649901901
4.026570296 5.139380336 2.958150125
4.031446959 4.044234174 0.5118591999
4.973248753 2.955017779 2.406860716
4.971082616 5.117084334 2.114012425
2.729328812 4.612485401 2.496479061
5.283897191 4.413437697 2.638568444
3.442587005 4.899694656 0.9562644981
4.35816179 2.977555677 0.9532748642
4.224131407 3.474021196 3.340034258
4.432522988 5.137563348 2.921867557
3.436955431 4.431657181 3.321808338
4.949747039 2.927765103 2.419770815
3.880810723 3.939789253 3.469486603
3.447969891 3.41384723 3.249223386
3.748859258 3.827135892 3.475192515
3.9432585 5.098862023 0.9696522847
3.915204838 3.514944158 3.446052473
4.055585102 2.934384941 0.9577471308
3.348464359 3.99490429 3.322445692
3.815684297 3.237702196 3.294792485
4.08426167 4.054988053 0.5217233837
3.39657682 3.479688997 0.7780033253
4.73513565 2.833700175 1.411665435
3.117659836 3.6031212 3.101820413
4.728673177 3.325813962 3.15198436
3.378147358 4.152665748 0.655241556
2.939746165 3.221511384 2.706692683
4.014912164 3.98361661 3.54332176
5.017946088 4.064301443 3.086551171
3.526714542 3.248312005 0.7983794401
3.988349434 3.998205147 3.498837773
3.605708871 4.085226766 3.445599464
3.949144599 2.578975524 2.465646484
3.531125548 5.436563535 2.050440369
2.881790964 3.455644559 2.888775835
4.524456833 2.743524634 2.631845562
4.007078362 3.998262945 3.483577049
4.358716109 2.542704241 2.153858132
4.233176179 5.049132738 3.044473586
5.005671771 4.514115435 1.055426452
4.780243973 3.526970339 3.194405872
3.783465028 4.264359626 3.476316934
5.184412774 3.947270479 1.107162771
4.429350387 5.425203809 2.241089356
3.843900885 2.554665311 1.95338397
3.365501485 5.185632008 2.691396423
5.474387582 4.100935018 2.206656187
3.566442339 3.175464266 0.825038492
5.198419576 3.491388581 2.760098466
4.658056339 5.071947146 1.161779077
4.407972967 2.594033777 2.1758837
2.951883242 3.677487131 1.012351409
5.431844217 3.89868221 2.472602251
3.731976942 4.132011443 3.479274901
3.991197842 3.962930073 0.4927890749
3.170436455 5.236969964 2.28240876
5.258569706 4.351356931 2.702608678
4.997189562 4.970291408 1.514272257
3.931128289 3.987784211 3.475113684
3.728747535 3.533031862 0.6154470745
2.79369511 3.521723055 2.719757565
4.046466856 4.040944383 0.4746744807
4.28054584 3.635951685 0.5603975122
3.699624401 5.422325535 1.618153589
4.651433106 4.40147379 3.325997155
4.262663947 3.011566207 0.893355847
4.05403005 3.042727088 0.8630873254
3.391031256 5.282582565 2.461498441
4.532104298 4.121225422 0.6197120835
4.022491099 3.944870456 3.481967456
3.688176781 3.996761848 3.482371466
4.187727499 5.340221933 1.434490244
4.833500078 3.805855113 3.249138453
3.898867166 3.604117123 3.444505817
4.526006686 2.610258114 2.124210662
3.23058164 3.79969333 0.6649481153
4.892971515 3.101589544 1.247328666
2.482883445 4.135755707 1.954726556
3.464757432 4.404748119 0.6191513863
2.643658518 3.878141247 1.317545971
4.324053734 2.731817184 2.747554355
4.255642088 4.268561238 0.5599072779
2.821527226 3.273903159 2.495070215
5.162522143 3.078307747 1.883939267
3.402802033 5.385840218 1.863999708
4.414233558 4.036342492 3.45713824
4.246170229 3.791757117 0.5383013241
3.881417792 3.962987942 3.460740387
3.00030503 3.828291668 0.8589052462
4.776660782 2.836086331 2.468855149
5.234045476 4.769930342 2.299234589
3.32746013 2.710142546 1.744092663
4.03276879 2.645019552 2.647512109
4.756598153 3.095836176 1.028519706
5.207611094 3.138899256 2.017109397
5.258911904 4.762729124 2.296108928
4.197899618 3.848075309 0.5559108451
2.800891412 4.31689513 2.819497149
3.360718292 4.058278208 0.6782879442
5.448160764 3.888991683 1.668365215
3.547642205 3.827775605 0.5867684001
2.544645177 3.733194766 1.74383632
4.493394491 4.68692933 0.7371831006
4.109905718 5.092463137 0.999592755
3.920230569 3.785713886 3.483043552
2.982720281 4.133708964 0.8594509016
3.73113302 3.88217589 0.5090405949
4.258844935 5.276706418 1.319233456
3.855947485 3.683692889 3.435844597
3.617349103 3.50693145 0.6100906781
4.352328063 3.239595751 0.7608416248
4.389802454 4.049889649 0.58119167
4.021532616 3.442640954 0.6072792273
2.818353142 3.31479884 1.362477317
3.621957947 3.918130793 3.469211187
3.38460903 3.659153853 0.6751013177
4.224333203 3.716015251 3.502238109
4.237445531 3.455755144 0.6177600779
3.650562287 3.617483413 3.437573234
2.93279102 3.706284492 1.026065888
4.578815178 3.088163298 3.018910334
2.671463109 4.656646924 1.857646404
4.48627438 2.657104899 1.562899471
4.768947853 4.478372596 3.19228524
4.252000203 4.034047072 3.475990693
3.743456726 3.77124395 3.461004469
4.636123602 2.653473646 2.142477216
3.499887527 3.967972093 0.5973026057
3.844183559 4.107583205 0.5118609909
4.468788579 5.204837337 2.740925005
3.695810841 4.071341909 3.458146041
3.75367387 2.614325493 2.469509565
5.433514301 4.326383916 1.744469279
4.136693219 3.868395503 3.479943994
3.000349124 3.195535363 2.807304013
2.91575986 4.465673819 1.071405217
4.72285269 2.964286387 2.804883376
3.370155503 2.657670701 1.692429258
5.418257938 3.908291203 1.449039493
3.624576713 2.728361723 2.718219578
3.549945511 4.337287953 3.388880349
5.122631782 4.077444722 0.9935210522
3.760520004 5.381194283 1.549280393
3.769535685 3.518353911 3.394679329
2.717107812 4.350750491 2.686553896
3.848702941 3.946867361 3.491406517
3.674858976 2.772213473 2.822434559
3.520651176 2.580387407 1.82708247
2.66443302 4.626759156 2.092363707
3.481567481 3.284204536 3.270857968
3.449438155 2.855727374 2.786196941
4.47552321 5.235897938 2.665245177
4.467091348 4.856772148 3.111938546
4.031485961 4.912940919 0.8332168535
3.017546223 5.037221155 1.555394988
3.711478018 2.756380557 2.802610134
3.988300991 3.971015748 3.497704221
4.644015288 3.196303107 0.8985482876
3.130492919 4.055117609 3.176063966
5.085079585 4.920319264 2.414050351
4.652642975 5.305854453 2.10393631
2.884798095 3.101316986 1.541341205
5.076278901 2.949764772 1.977523802
2.534068619 4.240644878 2.236430263
2.9304056 4.078251431 0.9353511641
3.76594769 5.454353403 1.679044181
3.722677752 4.993840059 0.936913207
4.954153639 3.324769377 1.099272054
4.056876906 4.175434857 3.497405035
5.143662237 4.22065409 2.977233199
3.950353973 5.00826006 0.8648208553
4.086877302 4.919907031 0.8205901161
4.064547105 3.949188429 0.5132421192
3.99611639 4.066915736 0.4834981045
4.70941671 3.134190553 3.036502029
3.730220202 3.264182705 3.274870892
3.297052157 4.641742366 3.104507212
3.514619986 3.82471265 3.436432377
2.908067094 3.816501576 0.9690200586
3.189054592 2.732207303 2.218117191
4.577978432 2.640320447 2.047277731
2.479878953 3.891949757 2.02806685
4.428126511 5.459086409 1.989902665
5.135406759 3.090096325 1.975203668
3.435554619 3.814216791 3.379321504
4.540536282 4.179840914 3.418823718
3.49518958 4.170016425 3.394558661
3.981222318 2.622220323 1.490662293
3.9966923 4.066736751 3.50191635
4.59898017 4.487620493 0.7279027946
4.674879014 4.714288082 0.8356484226
5.017257384 4.854741126 1.27438943
3.816567873 4.039613972 0.5107519166
3.745065815 4.207458791 0.5188602813
4.450675075 4.134674733 0.5845409134
3.071168489 2.882923512 2.323995388
3.685654251 4.715984943 0.7280130211
4.727626347 5.153911465 1.36769328
3.253463772 4.15824851 0.6973494596
4.286958355 2.731273073 1.235389949
3.558926166 4.767459409 3.251469059
2.951592411 4.944115221 1.3717079
3.969973887 5.347170598 2.721474921
5.182943091 4.211168708 2.93328818
4.579762419 3.32857877 3.173166162
4.28852313 5.404871203 2.440704664
3.21563904 4.446066271 3.168327751
2.744034078 4.72667836 2.217893913
4.514316579 3.122654177 0.892828841
5.413301538 4.000121717 2.462909515
2.70440855 4.176534766 2.654050483
2.581640531 4.356078708 1.581000016
2.909026093 3.803538941 3.032702647
3.806195147 3.657140583 3.455160941
4.835549073 5.21505217 2.072483183
3.160580222 4.046499922 3.236174943
2.657025686 3.387598429 1.58155037
3.935532286 4.390587848 3.481674487
5.499361271 4.097663307 2.136216896
4.513517422 2.683431355 1.472125306
3.793915408 3.633512501 0.5659321727
2.816692868 3.859777102 2.883931402
3.889075183 2.760983665 1.164077783
2.592265675 3.822444099 1.543712155
4.628390287 4.894170159 0.9562520002
4.202017414 3.624616168 0.5445727828
4.361580524 3.969300727 0.5868566266
3.297326378 3.99568745 3.308082572
3.396327856 4.46467982 3.30246873
4.872617488 4.282164183 3.208506753
4.449720833 4.164977323 0.6120884498
2.902240052 5.001202891 1.8545897
4.245042136 4.765186055 0.6855603532
4.139716364 4.781799285 0.7084107043
4.416567917 4.277149677 3.422928229
5.330107589 4.637870453 1.6496937
3.177881894 4.022497039 0.7600043544
4.561374316 4.497043187 0.7090247597
3.075730256 4.364373892 3.108472477
4.625778499 4.056704258 3.347775482
4.91016147 4.333004583 3.178703528
4.664526959 4.73021985 0.8417339279
2.543921143 4.138616224 2.397893526
3.13804549 2.783430836 2.199523129
3.196097466 4.578927909 3.163523007
4.280835521 3.771683993 3.427101743
3.410776785 5.348528631 1.854911531
4.15233523 4.904043215 3.149450808
2.868430204 3.099684154 1.809784679
4.060061434 3.906117313 0.5089689425
3.118373232 5.216312631 2.207206224
2.622520081 3.658789493 2.526132801
4.088784537 2.5203484 1.990320264
3.611694024 3.532817944 0.6126484111
4.041015003 3.953230317 3.511040815
2.914709168 5.023896167 1.825099041
4.55597771 4.397046999 0.6737468562
4.035184933 4.029732083 3.519218482
4.308291649 2.527344772 2.095069888
4.618589447 3.761766117 3.342132373
4.079555463 2.915641557 3.051716294
3.958687795 4.102758378 0.5007848841
4.471489282 3.59257661 0.6414881952
3.526990604 3.955930512 3.428738979
4.288589831 4.294059648 3.431293898
3.501348409 3.546448531 3.340800306
4.083616865 2.493438301 1.883015924
5.171883199 4.973360663 1.944966871
3.572358078 3.914088932 3.431111433
3.075910516 4.553260879 0.967640476
4.579130071 5.319035446 2.278623302
4.981268352 3.186422487 2.79867427
4.298225894 2.853721523 2.942301486
4.387154927 4.693594216 0.7098667197
3.743657952 3.662009584 3.411818489
4.736176126 5.31580811 1.922748381
3.311075753 3.762518259 0.635588486
4.243308657 4.168227289 0.5178579206
4.211269363 5.090216599 3.005773222
4.236964081 3.207744601 0.7635770358
4.549527272 3.278615408 3.195470041
4.90277643 4.78044058 1.096531943
5.077271314 3.4675296 1.098293914
3.876443032 5.366753576 1.385430949
4.325788904 3.938581787 0.5428428229
4.988969256 4.335296519 0.9039169387
3.429397572 5.179933974 2.729687042
3.670052019 3.288306657 0.7177287119
3.879692848 4.157462663 0.4938474786
4.749490295 4.299642903 3.233931534
4.807760389 4.940462848 2.902724956
2.498542164 4.021374292 1.685113676
2.802838693 3.129639702 2.014797169
3.590542681 5.184276443 2.843474618
4.221621988 3.821419235 3.496033258
4.816728025 4.688958078 0.9602247267
5.514409523 3.863767142 2.059417357
5.383281462 3.842896099 2.515883153
2.52236041 3.877268664 1.777190376
2.799786013 3.165318199 2.227470966
4.275682033 4.366254757 3.424872521
3.848456666 4.51245206 3.397452268
3.936716319 3.909120735 0.4703406782
3.351417243 5.114899614 1.316866973
2.523351435 4.059443719 2.335457836
3.533245927 3.758611586 0.5719611622
4.079706999 4.038396806 0.523621301
3.806600451 3.217712034 3.275701025
4.066623371 4.00609801 3.485744695
5.075201673 3.480821723 2.92014741
4.732622295 2.98940551 2.842140776
2.672835351 3.552061698 1.48282575
4.797623355 3.471376986 3.138587665
5.322905187 3.405481188 2.249557028
2.661820647 3.726437395 2.570714824
5.109206006 2.997007673 1.989732864
3.874711004 2.541774454 1.988102925
3.979168605 3.998884347 0.4837035457
2.723422831 3.489451601 2.627130783
3.948348303 3.281198322 3.301190366
3.583824049 3.62543071 0.605740985
4.947373287 3.818726671 3.148223397
3.777078953 3.349110433 0.631219956
4.68946874 4.974794549 2.863673606
4.179365354 3.754536597 0.5151826629
4.666965386 4.927619276 1.04983777
2.733694293 3.508322278 1.460797314
4.469113534 2.702448876 2.550065126
3.418540837 3.819869437 3.348978331
3.01140013 4.390029726 3.043940106
4.695232162 3.972343503 0.6323782124
3.776371003 2.525299697 2.174509148
3.509414466 4.854857165 0.8744779672
2.624676652 4.592634928 2.274509532
5.469792585 3.737588457 2.113236036
3.744634301 3.922136343 3.469109154
4.125809316 4.306959844 3.472878612
4.963076516 4.145121797 3.182292362
5.238738045 3.332420626 2.504850235
3.439150355 3.598815055 0.6961436786
5.214989467 4.05507154 1.084877742
5.193129384 3.11576775 1.975226115
3.210337129 5.274951641 1.865448126
5.258211519 4.752124949 2.143629259
3.693603748 2.732983411 1.266402437
3.92480728 4.657389447 0.6796334939
3.401056414 4.144321541 0.6106186583
4.391888544 5.32166723 2.714854208
3.537226434 5.388327642 1.813432105
3.537126446 3.864846084 3.453903958
3.739485987 5.400040039 2.351271625
4.040856629 3.634303284 3.467714583
4.410896752 2.578521014 1.736546897
5.239880909 3.818419141 2.847026086
4.08747749 3.880868 3.486984132
3.918377313 3.921277693 3.491208197
4.78671669 4.898067884 1.054193504
3.620924903 2.712241698 2.704881118
4.752302704 5.265876835 1.733196737
3.899717981 3.892928597 0.5238576168
3.050094183 2.952657525 2.429479588
2.558021601 4.410661926 2.155068027
3.728324201 4.67103155 3.300515499
4.085943875 4.23890628 3.487645243
5.194941321 3.274976189 2.492332909
3.31869598 3.94002894 0.6610650719
3.050465024 4.981185264 1.385368315
3.223304092 4.071675112 0.7347386339
3.941976616 2.522540222 1.646580912
3.34649607 3.867985697 0.6796603085
3.036580404 4.213133151 3.118953102
2.674225953 3.346106449 1.699100528
3.615499538 5.038270769 2.997966778
3.230377911 2.734129667 1.705728763
2.613335789 4.251199975 2.572716706
4.6421378 2.874757684 2.742440557
3.263083248 5.0952537 1.294726845
4.48588624 3.20226857 0.8167574215
4.06165255 3.166299978 0.7713520231
4.984544028 3.959421294 0.8824891333
5.31802672 3.423950508 1.557397573
3.680894114 5.401425546 1.533434483
4.657331271 2.898316222 2.783425082
4.112273175 3.926273648 0.5257184033
3.949665471 3.918703168 3.472047269
3.570514946 4.74949103 3.236852952
4.177599503 4.293736516 0.5151456999
4.485820206 3.909158691 0.6177719358
4.106507286 4.623510991 3.368223212
5.088980332 4.318049017 2.931127264
5.222561307 4.418288689 2.6854839
3.233894808 2.834535319 1.461012902
4.120915479 5.16438085 2.931638101
4.499978063 3.746228421 0.6733438875
4.190249694 2.521572635 2.131464876
4.991104115 3.106195036 1.314200212
3.409132703 4.242408805 0.6082117179
3.57683483 2.970105656 1.030556728
4.056035601 5.434993918 1.744803153
3.416512877 5.216988544 1.410935402
3.404988705 2.628241151 2.2375397
4.82144116 4.376027607 3.184675608
3.908109737 5.099719877 3.043755874
4.028417417 3.878678727 3.523611757
3.639465396 4.825663831 3.192209684
5.32610039 4.672821269 2.253931758
4.666344658 2.665902192 2.079720268
4.452971986 4.608879494 3.311358562
3.955432504 3.825490282 3.487017069
3.124088124 3.842015157 0.8024959475
4.105761042 2.868332917 2.924115776
3.962362766 5.256525252 2.76935266
4.951449079 5.098492216 2.220100401
4.975183527 3.690085002 0.9738352218
4.36423479 4.252285775 0.5913350664
4.926155297 2.842006681 2.273862565
5.14232239 4.801311923 2.507470647
4.935548055 5.184102726 2.114709481
4.715342628 3.949427414 0.6842762908
4.024465871 4.008488314 0.505303641
4.192055692 4.762815402 3.279702033
3.700575361 5.362698321 2.589379041
4.200508373 4.732812713 3.322628203
4.823617104 5.146912196 2.481762998
4.627785431 2.929711554 2.855217471
4.852185112 4.091304128 3.212451405
3.104684255 4.208742173 0.8554464477
3.532532276 2.807634274 2.754662762
5.448961359 3.771362285 2.185576817
3.695256242 3.313097796 0.6714764535
4.310415391 4.18580905 3.480885078
3.173425948 4.245186635 3.258084563
4.483812272 2.648108016 2.457298444
4.655349117 3.538063058 3.28429838
5.226591628 3.141949819 2.178400784
3.388708948 4.244980052 3.343158264
4.723434477 4.191288323 0.6579622751
2.549058053 4.140469658 1.680847919
4.190430003 2.760202987 1.117534003
3.803256633 4.765091615 0.7317531058
4.878059288 4.667879602 3.063261495
3.468292969 5.198376939 2.82880797
3.61286368 3.181306285 0.8031701701
3.831598639 4.118408885 3.471154396
4.821559889 4.347193692 3.204614341
4.114616177 2.740749936 1.258706371
4.03104936 4.135062772 0.536614822
2.954750975 5.079177084 1.789219029
3.722252929 4.294242399 0.5398281501
4.067073526 2.817312777 2.91377863
3.449688553 4.103376584 0.5886340834
3.666254775 3.029427755 0.9038164207
2.675209691 3.794915192 2.66331532
3.812638547 4.548172608 0.6393787602
3.879727098 3.541598171 3.420248584
4.297906152 4.875699262 0.8310899798
3.993712872 3.724775734 0.5218579486
2.9139042 4.072183486 1.001506842
3.668873166 4.474200876 3.354954983
5.288637125 4.726886627 2.288788631
3.190452305 3.582692394 3.160861238
3.503092556 4.156221859 3.425554036
3.484674783 3.110043729 3.102857675
3.983445701 4.336235618 3.475361997
3.233118979 3.954962008 3.308213327
3.910335947 3.96357533 3.500842871
2.896993677 4.618851092 2.820428131
3.982636261 4.158925184 3.50466651
4.825401798 3.551022151 3.185264157
3.331571538 2.692619483 1.588970884
3.350033431 3.021330324 2.937801214
3.589934899 2.973115064 2.977075948
5.077030939 4.632855844 1.154605184
4.965052187 4.933896163 2.711440943
4.443659879 3.394488026 3.32852235
3.932515602 4.527283018 3.398770291
3.564480951 2.852598013 2.865037225
3.401080186 4.033988475 3.364441214
3.669422253 2.979033739 0.9466345807
2.83683743 3.456818473 2.798621933
3.759164823 5.146815654 2.959831324
4.596180856 4.622358161 3.244408018
4.108355514 4.201733072 3.465897576
3.791434512 4.456723878 3.399296302
4.048066584 3.899354791 0.5171414987
3.689589757 5.19916777 2.829036838
4.718767592 4.826085405 3.070147334
3.733043186 3.550218408 0.6037355852
4.038822268 3.504437964 0.6102538477
3.034809898 3.021003278 2.551710044
3.012772829 3.242761147 2.812479765
3.8355935 4.790089949 3.285433721
3.205827275 4.595914137 0.8497107711
3.568166415 3.955366872 3.43964594
3.927590123 3.90788474 3.4813198
5.426464111 4.286199492 1.654466698
3.634487562 3.25675583 3.242827365
3.197472599 5.15574008 1.45270613
3.713682005 2.804658548 2.830771155
3.881566899 4.420978071 0.5495646857
3.84612834 4.293947244 3.443905505
4.283907802 5.144357774 1.125362874
3.149463644 3.69928817 0.8333390687
3.480643301 3.106852708 3.078437184
4.389826464 2.699355387 2.640772527
4.120047713 3.346920561 0.6840917522
2.730803175 4.218862205 2.759124176
4.878761942 2.855288049 1.631477604
4.497689613 3.760161966 0.5983165956
3.39215775 4.440126195 3.293625332
4.104918895 3.564393338 3.413458937
4.054610377 4.038880284 3.49516659
4.418100988 4.17775626 3.423593138
5.233248748 4.845611804 2.028887408
4.516587827 3.414539413 0.7327696169
4.787545491 5.129265296 2.65457973
4.347570046 2.567587449 2.076209272
5.326694498 3.835982184 2.666572845
4.330680732 3.874885118 3.448445397
2.656816631 3.644154874 2.523611124
3.578907616 5.198364672 2.850140016
2.950711776 3.620353766 1.011142532
5.027321022 2.926032733 2.145737127
4.148959756 3.075041684 3.153934973
5.072606912 5.101967104 1.877021509
3.68038622 4.705417219 0.7389026336
3.133754043 2.877018739 1.399186675
3.956291704 3.647870919 3.435920268
4.091057252 4.15137543 0.475918463
3.857926174 4.147845056 0.494225708
2.743762743 4.313810509 1.193116352
3.259684208 3.611884185 3.270812649
4.604644831 2.640904018 1.980274719
3.664408593 5.434861488 1.866848056
4.109299982 4.518651224 0.6131966454
4.021459483 3.235514804 3.309895439
2.84632947 3.294352783 1.373808601
4.675835603 3.809075931 3.302588793
4.310012831 3.824887731 3.494869535
3.454149291 2.818074446 2.759902198
3.084805518 5.174922326 2.094201141
4.435654678 3.552294367 3.350907834
5.049732017 2.944935292 1.824024114
3.60047231 4.133691027 3.435581578
3.916122613 3.718227132 3.497724603
4.294315349 3.804000524 3.454451137
3.714780188 4.024084737 3.458776453
2.906049133 3.317881851 1.314075958
3.641643798 4.322992902 0.5466593609
5.253841136 4.83534132 1.977475697
4.203473905 5.00895962 3.093476705
5.342049571 3.285428995 1.925589987
2.970546054 3.807587808 0.9023925867
4.016884273 4.256621664 0.5305211882
4.119874865 4.142465287 0.4721554957
3.489848332 2.734220344 2.583445776
3.750160366 5.394669342 1.552890067
3.347633024 3.990639201 3.369447564
4.118878823 3.953909374 0.5219675999
5.165934276 4.956354057 1.803909204
2.996806535 3.04787238 2.571248422
3.859499022 4.092123688 3.497446834
3.762193377 4.414312531 3.418668262
4.042231766 3.665988614 0.5408132245
3.8817874 2.744076033 2.844406985
2.894898919 3.814288403 3.024632921
3.741766288 5.037387481 0.9370535969
5.425096846 4.421785131 2.130095926
4.702979456 3.02838844 1.087638175
3.510620742 2.562093085 1.841813016
4.402823741 4.261044124 0.5600351771
3.893415387 2.85945461 1.057901435
4.059304842 4.803212276 3.271613358
2.543162975 4.244271458 2.102797132
4.039225224 4.163427375 3.488958713
5.084797444 3.884833633 0.9550267278
2.530331169 3.705165277 1.743684976
3.823736565 3.54767116 0.5917593248
2.913454854 3.930129835 3.050657039
3.286686396 4.796109521 0.8948710758
3.890141889 3.977382393 3.506168001
3.190118752 5.173466995 2.45533085
3.935965432 3.339513441 3.319704405
3.449607235 3.041381557 0.9650199084
3.510720082 4.713262509 3.233015287
4.362703925 4.356970191 0.5916643706
3.951909067 3.270328493 0.6848928971
4.36781028 4.654308016 0.6623384278
4.413516273 2.833715147 2.838961158
3.248946615 4.823141869 3.005056747
5.122636676 3.648838055 2.965664534
4.007325305 2.81451912 2.906261214
2.772639877 4.570689813 2.586626199
4.552553004 3.655298095 0.6269635286
4.286993649 4.627781679 0.6615997087
4.413121296 5.41742575 2.272300335
4.032696168 3.971720792 3.49431652
5.342603577 4.625465687 2.22417728
4.241948041 3.039953401 3.146206908
5.125247729 4.753224227 1.43881439
4.674737031 5.251783144 2.508740544
4.00013465 3.960869365 3.484287137
4.326872425 4.001928286 3.452827422
5.21077744 3.581771193 1.211435888
2.644868165 4.664856454 2.045092474
3.694456416 3.372031636 3.307442549
3.10061246 3.257168471 1.036278713
5.277071796 4.075180992 2.780448528
5.289330881 4.526590907 1.434964857
4.166317352 3.077612465 0.8508136231
4.371122472 2.797499511 2.860234123
4.313286058 3.839577998 0.5532370728
3.968151373 3.955814132 3.470523265
3.873924813 5.077203148 0.9261051156
5.096167649 4.306085025 2.998945791
4.696758119 5.219396544 1.441868652
2.787256054 3.14408601 2.178526677
5.444717727 3.801868849 1.711235487
3.619888716 3.429708436 0.6644386744
4.622858985 4.605351699 0.7898516259
4.451273741 4.28978011 0.5817445503
2.85263384 4.873278967 1.612356209
3.536405757 4.196878026 3.405842693
3.771012798 4.612575877 3.350610004
3.833996187 4.037949381 3.497655786
2.726099383 4.62741579 1.670138459
5.46069783 4.228454013 1.690539686
5.03523023 3.539275384 1.026479607
4.129869719 2.578952009 2.405294974
5.320735098 4.713975914 2.140883553
4.612794162 2.897209936 2.812587793
4.117754631 4.077503439 0.5059599515
4.486210895 3.731487275 3.370984018
4.175896951 4.508055927 0.5990080653
5.245574866 4.655513959 2.516803147
4.367859382 3.927773884 0.5671506505
3.079330232 2.938518843 1.44537587
3.944679989 4.102851809 3.499562219
3.813832246 5.415865665 2.462199316
5.139844746 3.661339115 1.061146856
4.978987473 4.526023191 2.958812955
3.372057908 4.309353267 3.348940439
5.377043228 4.053211315 1.481866004
5.121436713 3.008069133 1.872184485
3.961032982 3.952472033 0.4833073103
3.668112349 5.203802074 2.780214609
3.345679383 3.889410438 3.332910124
4.525770782 4.05755234 0.6322695107
3.506453141 5.272232293 2.606515654
3.186954272 4.868812641 1.100912349
4.727507658 2.693480625 1.924696962
3.911011929 4.075479013 3.493231048
5.302805409 4.603509312 1.710617619
4.743332786 3.706237162 3.236033407
4.790776991 5.239425186 2.317157782
2.711039237 4.759336438 1.739174181
4.039305971 3.007861504 3.123672331
5.433834672 4.230882937 2.338240156
3.839730413 5.062427753 0.9836034635
3.490444349 5.371365545 1.767235252
3.686824081 4.064850894 0.5244189735
4.52839734 4.39117307 0.6356794084
4.103124747 5.414772254 1.555061608
3.390068893 3.628163216 0.6757819476
5.040340503 4.783932501 2.769335631
4.597590742 4.054346733 3.349810299
3.84341112 3.963228138 3.470321483
4.224579396 4.242333717 3.506224025
4.659342625 5.172261276 2.634035552
4.105013241 4.236530505 3.472133631
4.679598734 4.03777409 3.350111887
3.336112614 3.134250739 2.978252933
3.889887145 5.015484825 3.10073032
2.726433405 4.783968506 2.093870604
3.913321233 3.894855738 3.44655476
3.824635934 5.445347935 1.664318793
3.449783952 4.482564988 0.7263822287
2.625936008 4.142560858 1.445258456
5.359649211 4.657995975 2.094622037
3.812461201 2.530333298 2.124827243
4.943197135 3.209123663 1.171517991
4.051195454 4.009066629 0.4707578929
4.276404154 5.183447319 1.094720807
3.451989108 4.375203797 3.333282384
4.837721131 4.760362021 1.020240496
4.45039181 4.601127181 3.284144324
3.772088918 5.298738475 2.712054704
3.974777911 3.603013899 3.443718593
4.315800989 3.301175277 3.305170833
3.216250589 3.69059245 0.7339851909
2.809698993 3.150010228 2.337921161
3.006767333 2.912704547 2.214729543
2.537265092 3.819345179 2.368030532
4.320441645 4.12796412 0.5097570023
3.267818922 2.800005717 2.540204901
4.25970049 3.465196933 3.387445528
3.218784985 5.284780109 1.909059274
3.599504833 4.722093892 3.221920494
4.175468146 3.968003458 3.489170875
4.753997305 5.066458328 2.727530163
5.477301868 4.109744837 1.90182238
4.129901819 3.984143952 0.5274151244
4.639550202 3.93008771 0.6515649768
2.638486659 3.959805324 1.332429769
5.043073262 4.116515261 0.9278794111
3.978504257 4.183576235 3.484015706
2.968165503 3.416996372 1.052262431
3.183656946 4.052713866 3.257606699
4.79087605 3.064297518 1.094783272
3.999159382 3.953814166 0.5145343954
4.908270795 3.805308224 3.235514859
4.562912586 5.314122329 2.434401902
4.434873666 2.71224638 1.376470292
2.75195678 3.419417784 2.481246676
2.78167838 4.640324812 1.412861032
5.26549315 3.250196132 1.87765742
3.14946083 4.021745341 3.215063939
2.894129281 3.911258709 2.939857751
3.426190085 4.946372334 3.00964768
3.863061679 3.023830383 3.074499543
3.938981232 3.72336445 3.476721515
4.174591177 3.346199811 0.6493905706
4.799675354 4.310398536 0.7719636355
3.80334253 4.545470663 3.381847596
3.851563176 4.445792833 3.431994458
4.074073373 3.543617458 3.401156051
3.277665723 4.437458322 0.7931395439
3.998717074 3.972157775 3.483668641
3.756690659 2.812745219 2.893164013
4.45617221 3.721757107 3.365402694
4.182702137 3.967618477 0.4770108161
4.000758032 3.987645091 0.4945024
4.469121199 2.644273354 2.519152801
3.063387278 3.696185202 0.8691842246
4.116585601 3.952276098 0.5066616293
3.982576422 3.992897057 0.5245262652
4.269749967 3.719878935 0.5588748555
5.342321144 3.527017561 1.629093782
4.059777408 2.920391865 3.050189551
4.026282515 3.852011845 3.489252853
5.364151003 3.433174984 2.26085915
3.679840404 4.616953235 0.6700320929
4.429650282 4.496474364 0.6919246976
4.438821298 5.424850809 2.110246366
4.684218103 3.620729145 0.7150206571
4.081146727 5.307046906 2.69632303
4.585854867 4.322401266 0.6415717482
5.250567442 4.284459791 2.753427681
4.935386975 4.115794644 0.8673516638
4.747256189 3.196578535 3.061515003
3.470366955 3.317047623 3.222356543
3.360514919 2.819493886 2.712998376
3.217964934 5.274742502 2.180666711
4.14459658 5.425179885 1.581187821
5.00526653 2.958104653 2.510361893
4.230767501 4.180950005 3.472396743
5.204099874 4.313747488 2.852247945
3.366816035 5.227956108 2.608485462
5.166689198 4.982499084 2.000731458
4.009510751 4.838461527 3.277562783
2.912971432 4.930714839 1.522736794
5.027790075 2.98410844 2.412294302
4.397220991 3.364179651 3.276423992
5.363468752 4.489439357 1.655044915
3.249278275 3.465779295 3.178562646
2.51910053 4.115261169 1.665418437
5.556657045 4.064651645 2.019679569
3.654619976 5.040580948 0.9837929682
4.002063878 3.544843094 3.41026197
3.448469926 2.749145154 1.389424222
3.997708726 2.806828461 1.038234181
4.808639413 3.724140402 0.7519835329
4.194370258 4.739466048 3.338567801
4.071444931 2.662744229 2.666992845
3.723551723 5.475399302 2.317396596
3.731716188 3.515968889 3.40932367
4.672485196 4.235241461 3.298485878
3.717021868 4.569580042 0.6824689067
2.5367738 3.772637014 2.215477131
4.607206264 3.863623986 3.376413393
3.650234652 3.643665145 0.5616737788
4.460719719 5.143308048 2.872089182
2.886788207 3.152997667 1.385150909
4.995634462 3.699744407 3.053411283
3.706330398 2.580803883 2.029506689
4.366332601 4.802114689 0.7542164987
2.75520972 3.876419907 2.780785077
4.86493798 4.225298929 3.186851945
3.581407732 4.27230473 0.5816744966
3.69970555 4.696343806 0.6917939847
4.004656913 4.018478385 3.479909402
3.851140209 3.93053475 3.472009713
4.387955893 4.186275523 0.5631667514
4.588540527 5.346314803 1.791235382
4.616949132 3.166634229 3.053892949
4.058390931 3.869842769 3.467584234
3.246453485 3.373933839 0.8241700334
3.123420165 4.262586432 3.181989863
3.696823982 3.334479903 3.310058124
4.023582117 4.168909671 0.5026325927
5.3901787 3.401557953 1.917403806
4.007615095 4.141633252 0.5129552594
3.016270497 2.984796651 2.498477539
4.499595119 4.552790874 0.6868475429
4.963920831 4.249946626 0.862560579
3.124301416 3.591949015 3.142365701
5.144630161 4.925589024 1.938730633
3.735145404 5.440310595 2.227777227
4.187989759 5.453267693 1.727491029
3.170632193 3.423077879 3.116753595
5.46048843 3.904506071 2.208280582
2.889026927 4.732473006 2.769140006
3.218841912 3.637503829 3.26823611
4.117113087 4.581170504 0.6581055074
3.966407915 4.080175111 0.5005550275
3.869674848 4.846664208 3.217777169
3.950402141 5.503224945 2.210588216
4.224063057 4.221150734 3.459878874
3.885894229 4.244182758 0.5499303273
2.82042984 4.840893266 1.613171418
3.683272904 5.107463946 1.032572116
4.845823369 4.852168129 1.146136756
5.080914044 3.106372472 2.520039971
3.927778978 2.532644852 1.762925114
3.711353664 4.517370322 0.6191145386
2.511248673 3.977916895 2.073919598
4.71569476 5.17076061 1.386684064
4.287340421 4.147763662 0.5491212039
3.912486352 3.440959863 3.363524244
4.774281855 3.579853558 3.19973169
4.260639164 3.212154809 3.242268324
4.91110116 2.824966971 1.79217855
4.601705502 2.76254773 1.450910537
3.934971222 3.734019518 3.493447351
5.034405212 5.069921946 1.787165806
3.316496467 5.235138384 1.542237225
3.992410441 4.707754097 3.368132054
3.544474467 5.320537427 2.588368741
4.498896375 2.592499412 1.862982622
3.704695291 4.885031246 3.175323665
4.964483816 4.967532226 1.415971452
4.386284127 2.602500231 1.507769566
4.568771602 2.628247932 1.80206842
5.474972543 3.720350161 2.066232375
3.696596742 3.94304045 0.5316609314
2.518461691 3.853249276 2.31808049
5.078245686 4.125181742 3.07999096
2.924210014 5.030937179 2.082147268
3.657131828 4.631953425 3.348598976
3.481962653 2.797529066 2.749770812
5.101076458 4.302107598 1.001058967
3.177031183 3.078935232 1.173206661
4.898465383 5.195913155 1.90775717
4.056277187 3.845945225 3.481143803
3.323154095 4.12277306 3.34607241
4.515220124 4.693128444 0.7552241038
3.552161871 5.038344847 2.947911822
2.950504877 4.899230588 1.454770366
5.264565556 4.556019981 1.459313008
3.724866893 3.914082979 3.481508945
3.574012733 4.40353522 3.399000852
3.177379629 3.349270404 0.9397753498
2.906692501 2.96849032 2.095895252
2.76846155 3.186994411 2.23552141
5.277035492 3.8029095 2.759807009
4.151083861 5.222051679 1.105583887
4.751447923 2.791082305 1.571430525
3.480321567 4.335066295 0.6374143511
3.981375314 5.234307566 2.856283786
2.87287382 3.502623642 1.139008882
4.877227439 3.557602572 0.8660764372
4.129952695 4.039149793 3.524873262
2.753082038 4.583928949 2.579850103
3.644830929 2.893769054 1.071089962
2.639015146 4.557007654 2.328298814
5.254716627 4.57829419 2.515524103
4.027766678 2.506646356 1.793682613
3.91982144 3.975051007 0.4907981159
4.716771157 2.831985337 2.490243139
3.157518249 4.224465999 3.21231667
4.313786215 5.417866891 2.031491619
4.552876371 3.117297173 0.9821657418
5.403781398 4.440478936 1.804590849
2.712992973 3.844669864 2.793347442
5.488224189 3.984808812 2.007981359
3.869264754 4.201476856 3.510081132
5.059161024 3.982389039 0.9204324162
3.589427575 5.094312448 1.056028469
4.265676206 4.079468677 0.5285017706
4.748053022 4.758560543 0.9674795834
4.960592223 4.257402875 3.139946235
3.038342018 3.243667474 1.131546731
3.654501806 4.421399573 3.393037296
5.149143406 3.062463383 1.734691016
4.075360706 2.927404403 3.063386982
5.320255158 4.457197907 2.468398039
4.139749046 4.368944359 3.419586413
3.06805283 5.045287353 1.518376298
4.764842758 2.992679103 1.145958695
4.243888282 2.575925648 2.383649608
3.517516154 4.195710899 3.418086589
3.904299977 3.236549086 0.7087964076
3.422401141 4.33660755 0.6914279241
3.608397453 3.872128356 3.460434976
4.749232034 3.35155443 0.8642314573
5.426723469 4.40412527 1.875333688
4.511909574 2.875491351 1.154717628
5.127071253 4.639650441 1.23395394
3.824329252 3.45732332 0.606649988
3.477091494 4.410246162 0.6424496268
3.957956281 4.01058279 3.502420206
3.892076745 4.117222931 0.5468165929
2.871418512 3.932129016 3.039118857
2.875992451 4.802860759 2.637019649
3.485794865 3.024751538 2.971276876
2.909690122 4.87158465 2.583006761
5.342047431 4.709666761 2.197905821
3.474951482 3.096051476 3.084639403
3.304686693 3.968196785 3.311231951
5.097436637 4.866806458 2.540884649
4.81618656 3.841302515 0.7195323471
3.805995686 4.210151667 0.5768145641
4.163688383 4.704274069 0.6396289882
2.870889953 3.697027133 1.101604014
3.993650133 4.040068311 0.5176887498
4.523224467 2.69678334 2.529550669
4.076784601 4.332268655 3.464465331
4.101134286 3.94985993 3.50175504
4.499590557 3.243432384 0.7410941498
3.530813613 4.171828724 3.38777802
4.241071262 4.830203872 0.7539833167
4.406037656 3.31399819 0.7481671878
4.860520957 2.875479653 2.522201462
3.987439894 4.921783447 0.8363130096
3.549283684 2.592000318 1.701918789
4.404532983 4.697114827 0.7280334812
3.392756301 2.828444639 2.686038334
5.115304629 3.259467581 1.259117787
4.012624586 3.799715657 3.475528072
4.448464167 4.451938947 0.6391023202
4.325089098 3.674928262 3.419250771
4.124681048 4.018266308 3.523682893
4.22807577 4.793146828 0.7797480776
3.858191155 2.730008011 2.748541218
4.894192009 2.798469566 2.153808774
3.73752394 4.54403223 0.6505754629
4.862315319 3.090801142 2.775676147
3.919255633 4.077063072 0.4577618607
2.946044449 3.303639863 2.837294991
4.010139394 2.953345737 0.9534329725
3.626727266 3.43653567 0.6462233813
3.9182518 2.750226479 2.859300645
4.10191507 3.971900552 3.490021147
3.41243751 4.037018201 3.388530561
5.300157524 4.381067045 2.630760173
4.332448907 5.070814054 0.9940781754
4.059882069 3.305499305 3.280536326
3.483395123 2.730163828 2.568370848
3.629828071 3.823917766 3.460076273
4.29395793 3.096942123 0.8379553955
4.435572391 3.035954703 3.042627
2.538823721 4.192714265 1.731096236
3.966847558 4.034043013 0.4952901691
4.082876771 3.929102885 0.4961116977
4.516274825 2.78788692 2.681040899
4.397172309 3.156016894 0.8256989286
4.730283238 3.812925967 3.31801133
2.911168635 5.021192098 1.902007194
4.270379975 5.487998983 2.178929415
3.570251773 2.596494739 2.365911832
3.086449048 4.211866273 0.8200677088
5.49020958 4.155992591 1.858003904
3.314909369 4.295022643 0.6858382465
3.868553707 3.757779417 0.5761213728
3.391509907 4.746719616 0.8484788568
4.774752211 3.821482734 0.7210842421
5.348229368 4.445277448 1.529321462
4.243190565 5.205771869 1.146134791
3.608374499 4.698189761 0.7279663846
2.601763198 4.272123825 1.539743566
2.577363061 4.065682546 1.52687288
4.360792745 4.833900749 0.7422696952
